# .PCD v0.7 - Point Cloud Data file format
VERSION 0.7
FIELDS x y z
SIZE 4 4 4
TYPE F F F
COUNT 1 1 1
WIDTH 1466
HEIGHT 1
VIEWPOINT 0 0 0 1 0 0 0
POINTS 1466
DATA ascii
-0.026954785 1.7218049 0.78463566
-0.028659999 1.7179712 0.78136635
-0.029964656 1.7139374 0.77813888
0.046087816 1.6506052 0.82368094
0.031567618 1.6285368 0.8571319
0.025939569 1.6606401 0.82498312
-0.0087281168 1.6486056 0.85973585
-0.027959973 1.6600332 0.85892689
-0.012523413 1.6834943 0.82336485
-0.089861751 1.6864401 0.85758227
-0.073341906 1.7115476 0.81952465
-0.094141781 1.7192761 0.81697965
-0.1314621 1.7018977 0.85249138
-0.13500187 1.7358587 0.81018335
-0.15189168 1.7101889 0.84909332
-0.21352553 1.7311835 0.83342135
-0.19700569 1.7562909 0.79536378
-0.2169055 1.7628336 0.78699005
-0.25332406 1.7442691 0.81667471
-0.2588706 1.7726264 0.77523458
-0.27430716 1.7491653 0.81079662
-0.27896696 1.7771525 0.76606953
-0.31449878 1.7582181 0.79246742
-0.32099134 1.7834198 0.75196254
-0.33551151 1.7613515 0.7854135
-0.34611964 1.7856894 0.74255222
-0.36063981 1.7636209 0.77600318
-0.35226339 1.7628644 0.77914006
-0.32936776 1.7841763 0.74882573
-0.15542325 1.7430449 0.80467474
-0.19273385 1.7245603 0.83807695
-0.033518374 1.6917481 0.82374877
-0.069950074 1.6765399 0.85969406
0.053968176 1.6136097 0.85700756
0.068488374 1.6356781 0.8235566
0.06102185 1.6406536 0.82359809
0.039034173 1.6235613 0.85709041
0.041909948 1.6434023 0.81711543
0.02738975 1.6213338 0.85056639
0.008413583 1.6326063 0.84976602
0.0039587021 1.6659474 0.8155154
-0.031370416 1.6523659 0.8523882
-0.015933856 1.675827 0.81682616
-0.075951189 1.7034801 0.8130697
-0.092471033 1.6783726 0.85112733
-0.11263183 1.6865555 0.84777451
-0.11627296 1.7198452 0.80636346
-0.15369383 1.7017955 0.84277368
-0.13680401 1.7274653 0.8038637
-0.19797796 1.7476312 0.78922862
-0.2144978 1.7225237 0.82728624
-0.23520523 1.7273574 0.82148665
-0.2393921 1.7572975 0.77762902
-0.27445287 1.7403166 0.80489576
-0.25901628 1.7637779 0.76933372
-0.29518485 1.7434113 0.79793817
-0.30047953 1.769966 0.75541812
-0.33481538 1.7523849 0.7798003
-0.32029516 1.7744534 0.74634933
-0.34508288 1.7766844 0.73706156
-0.35960305 1.754616 0.77051252
-0.33682024 1.775941 0.74015766
-0.34307796 1.7531284 0.77670419
-0.17420864 1.7083296 0.83817947
-0.17783344 1.7405343 0.79467583
-0.051014841 1.662132 0.85030401
-0.055223465 1.6953604 0.81265825
0.049492761 1.6065992 0.85043991
0.06401296 1.6286676 0.81698895
0.042125151 1.611511 0.85048229
0.049277559 1.6384904 0.81707311
0.052999884 1.5568789 0.90206587
0.038077042 1.5570087 0.89567387
0.02526316 1.5669144 0.8966468
0.022055626 1.5808032 0.90441722
0.030333236 1.590528 0.91442597
0.045246825 1.5904015 0.92081618
0.058069959 1.5804925 0.9198451
0.061279178 1.5666115 0.91208053
0.048313767 1.556569 0.90887427
0.03637515 1.5566713 0.90375954
0.026126236 1.5645967 0.90453941
0.023558348 1.5757084 0.9107554
0.030181959 1.583486 0.91876161
0.042111322 1.583387 0.92387456
0.05236949 1.5754582 0.92309648
0.054939047 1.5643544 0.91688645
0.081354469 1.5971228 0.86583197
0.10142976 1.627634 0.81958354
0.12150538 1.6581459 0.77333426
0.14158069 1.688657 0.72708571
0.16165598 1.7191684 0.68083715
0.18173127 1.7496796 0.63458872
0.20180692 1.7801914 0.58833945
0.078345686 1.610136 0.87311113
0.098621398 1.6397798 0.82637727
0.11889747 1.6694238 0.77964258
0.13917431 1.699068 0.7329095
0.15945004 1.7287116 0.68617558
0.17972577 1.7583553 0.63944173
0.20000185 1.7879994 0.59270704
0.078145251 1.6110036 0.87359655
0.098220542 1.641515 0.82734799
0.11829616 1.6720268 0.78109872
0.13837147 1.702538 0.73485029
0.15844676 1.7330493 0.68860173
0.17852205 1.7635605 0.64235324
0.1985977 1.7940723 0.59610391
0.066124037 1.6202934 0.87450707
0.08700034 1.6501856 0.82819784
0.10787788 1.680078 0.78188807
0.1287542 1.7099702 0.73557889
0.14963125 1.7398612 0.68926919
0.17050754 1.7697535 0.64296001
0.19138512 1.7996459 0.59665018
0.065322116 1.6209128 0.87456763
0.085397407 1.6514241 0.82831907
0.10547303 1.6819358 0.7820698
0.12554833 1.712447 0.73582137
0.14562362 1.7429583 0.68957281
0.16569892 1.7734696 0.64332432
0.18577456 1.8039813 0.59707499
0.051340729 1.6210312 0.86857677
0.072348207 1.6515344 0.82272762
0.093356013 1.6820381 0.77687764
0.1143626 1.7125417 0.73102832
0.13537024 1.7430457 0.68517971
0.15637773 1.7735488 0.63933057
0.17738557 1.8040526 0.59348059
0.050408527 1.6210393 0.86817741
0.070483819 1.6515505 0.82192892
0.090559438 1.6820623 0.77567965
0.11063474 1.7125735 0.72943115
0.13071004 1.7430848 0.6831826
0.15078533 1.773596 0.63693416
0.17086098 1.8041078 0.59068483
0.042648166 1.6119224 0.85879427
0.063240707 1.6430416 0.81317139
0.08383359 1.6741613 0.76754773
0.104426 1.7052797 0.72192419
0.12501945 1.7363986 0.67630142
0.145612 1.7675178 0.63067853
0.16620491 1.7986375 0.58505487
0.042130917 1.6113145 0.85816866
0.062206209 1.6418257 0.81192017
0.082281828 1.6723375 0.7656709
0.10235713 1.7028488 0.7194224
0.12243243 1.7333601 0.67317384
0.14250772 1.7638713 0.62692535
0.16258337 1.794383 0.58067608
0.04513818 1.5982941 0.8508842
0.065013021 1.629673 0.80512106
0.084888369 1.6610532 0.75935781
0.10476233 1.6924324 0.7135945
0.12463717 1.7238113 0.6678313
0.14451218 1.7551908 0.62206882
0.1643874 1.7865703 0.57630491
0.045338452 1.5974257 0.85039824
0.065413743 1.627937 0.80414975
0.085489362 1.6584487 0.75790048
0.10556467 1.6889601 0.71165198
0.12563996 1.7194712 0.66540343
0.14571525 1.7499826 0.61915493
0.1657909 1.7804943 0.57290566
0.057351321 1.5881391 0.84948605
0.076625615 1.6192694 0.80329823
0.095900223 1.6504002 0.7571097
0.11517546 1.6815301 0.71092212
0.1344499 1.7126613 0.66473484
0.15372419 1.7437916 0.61854708
0.17299883 1.7749224 0.57235849
0.058152333 1.58752 0.84942532
0.078227624 1.6180313 0.80317682
0.098303244 1.648543 0.75692755
0.11837855 1.6790543 0.71067905
0.13845384 1.7095655 0.6644305
0.15852913 1.7400768 0.61818206
0.17860478 1.7705886 0.57193273
0.072142065 1.5873985 0.85541779
0.091285154 1.6179179 0.80876994
0.11042765 1.648438 0.7621212
0.12957075 1.6789573 0.71547335
0.14871275 1.7094762 0.66882467
0.16785584 1.7399955 0.62217689
0.18699838 1.7705157 0.57552809
0.073075175 1.5873902 0.85581732
0.093150467 1.6179014 0.80956882
0.11322609 1.6484132 0.76331955
0.13330139 1.6789244 0.71707106
0.15337668 1.7094357 0.6708225
0.17345197 1.739947 0.62457401
0.19352762 1.7704587 0.57832474
0.08083719 1.5965149 0.86520642
0.10039507 1.6264174 0.81833172
0.11995344 1.6563213 0.77145684
0.13951041 1.6862241 0.72458196
0.15906842 1.7161274 0.67770779
0.17862628 1.74603 0.63083315
0.1981847 1.7759337 0.58395827
0.11691555 1.4727303 0.25229183
-0.29044151 1.620118 0.17270413
0.19136828 1.8195349 0.51340556
-0.21597028 1.966916 0.43382144
0.093951643 1.4265199 0.28425217
0.11331122 1.4559433 0.23965251
-0.29404584 1.6033311 0.16006482
-0.31340539 1.5739076 0.20466447
0.09755598 1.4433068 0.29689148
-0.3098011 1.5906945 0.21730378
0.17200871 1.7901114 0.55800521
0.19171759 1.7829804 0.56185585
0.21107717 1.8124039 0.5172562
0.13662444 1.4655993 0.25614247
0.11726487 1.4361758 0.30074212
-0.23532984 1.9374925 0.47842109
-0.25503874 1.9446235 0.47457045
-0.23567915 1.9740469 0.4299708
-0.31015962 1.6272523 0.16885167
-0.32951921 1.5978289 0.21345133
0.06599617 1.4911537 0.24234343
0.015076771 1.509577 0.23239499
-0.035843566 1.5280008 0.22244638
-0.086762965 1.5464242 0.21249798
-0.13768238 1.5648475 0.20254955
-0.18860176 1.5832709 0.19260114
-0.2395221 1.6016946 0.18265253
0.12622233 1.5160806 0.28493091
0.13552913 1.5594308 0.31757003
0.14483514 1.6027822 0.35020956
0.15414193 1.6461326 0.38284868
0.16344871 1.6894829 0.4154878
0.17275549 1.7328331 0.44812688
0.18206152 1.7761846 0.48076642
-0.24664059 1.6382469 0.20367703
-0.20283967 1.6563758 0.23464993
-0.15903878 1.6745046 0.26562285
-0.11523789 1.6926335 0.29659575
-0.071436971 1.7107624 0.32756865
-0.02763623 1.7288905 0.35854098
0.016164675 1.7470194 0.38951388
0.059965581 1.7651483 0.42048681
0.10376648 1.7832772 0.45145971
0.14756738 1.801406 0.4824326
0.069457524 1.7164117 0.39245427
0.078948714 1.6676762 0.36442214
0.088440649 1.6189396 0.3363896
0.097932599 1.5702031 0.30835709
0.10742362 1.5214669 0.28032437
0.026131183 1.6958463 0.36007994
0.036097705 1.6446733 0.33064601
0.046063289 1.5935006 0.30121186
0.056029633 1.5423267 0.27177733
-0.019094199 1.6850281 0.33331165
-0.010551229 1.6411653 0.30808252
-0.0020091832 1.5973027 0.28285325
0.0065337867 1.5534399 0.25762409
-0.062538981 1.6650715 0.30128759
-0.053639889 1.619381 0.27500731
-0.044741735 1.5736909 0.24872684
-0.10574594 1.6438969 0.26856324
-0.096254915 1.5951607 0.24053052
-0.15192026 1.6379523 0.24459836
-0.14480084 1.6013998 0.22357404
-0.19572118 1.6198235 0.21362546
0.097562268 1.7543769 0.42970034
0.13515897 1.7436054 0.43891391
0.11645311 1.7029473 0.40397102
0.11654524 1.656904 0.37363511
0.11663827 1.6108605 0.34329936
0.14136317 1.7725058 0.46067327
0.14045073 1.8379576 0.50345749
0.089534104 1.85638 0.49350959
0.038616568 1.8748027 0.48356155
-0.012300998 1.8932254 0.47361347
-0.063218534 1.9116482 0.46366543
-0.11413518 1.9300705 0.45371756
-0.16505271 1.9484932 0.44376948
-0.28113288 1.6634676 0.20534357
-0.27182332 1.7068169 0.23798326
-0.26251453 1.7501674 0.2706233
-0.2532059 1.793517 0.30326277
-0.24389726 1.8368666 0.33590224
-0.23458767 1.8802159 0.3685419
-0.22527891 1.9235663 0.40118197
-0.16852701 1.7232399 0.29365611
-0.17801636 1.7719747 0.32168856
-0.18750459 1.8207099 0.34972182
-0.19699287 1.8694451 0.37775511
-0.20648202 1.9181807 0.40578818
-0.12520069 1.7438053 0.3260304
-0.13516444 1.7949773 0.35546491
-0.14512727 1.846149 0.38489956
-0.15508991 1.8973215 0.41433483
-0.079976261 1.7546239 0.35279852
-0.088516444 1.7984858 0.37802818
-0.097055703 1.8423473 0.40325803
-0.10559589 1.886209 0.42848769
-0.036531448 1.7745805 0.38482258
-0.045426846 1.8202696 0.41110358
-0.054323167 1.865959 0.43738443
0.0066764206 1.7957547 0.41754714
-0.0028127432 1.8444902 0.44558021
0.052848928 1.8016999 0.44151166
0.045733213 1.8382511 0.46253669
0.096649833 1.8198287 0.47248456
-0.19663364 1.6852754 0.25640965
-0.23422849 1.6960461 0.24719644
-0.21552077 1.7367036 0.28213972
-0.21561104 1.7827462 0.31247598
-0.21570039 1.8287885 0.34281245
-0.24043453 1.6671464 0.22543672
0.062391832 1.4743667 0.22970411
0.011472434 1.4927901 0.21975568
-0.039447904 1.5112138 0.20980707
-0.090367317 1.5296372 0.19985867
-0.1412867 1.5480607 0.18991023
-0.19220608 1.566484 0.17996183
-0.24312642 1.5849077 0.17001322
0.045452282 1.4486213 0.26872861
-0.0030470937 1.4707227 0.25320506
-0.051547706 1.4928241 0.23768204
-0.10004711 1.5149255 0.22215849
-0.14854646 1.5370269 0.20663488
-0.19704616 1.5591278 0.19111213
-0.24554646 1.5812296 0.17558837
0.043032259 1.4449432 0.27430376
-0.0078871399 1.4633666 0.26435533
-0.058807462 1.4817903 0.25440672
-0.10972688 1.5002137 0.24445832
-0.16064626 1.5186372 0.23450989
-0.21156567 1.5370605 0.22456148
-0.26248598 1.5554842 0.21461287
0.063576132 1.4874756 0.24791858
0.010237038 1.5022215 0.24354452
-0.043103322 1.5169671 0.23917103
-0.096442759 1.5317124 0.23479781
-0.14978218 1.5464578 0.23042452
-0.2031213 1.5612036 0.22605053
-0.25646162 1.5759492 0.22167704
0.046636596 1.4617302 0.28694308
-0.0042828023 1.4801536 0.27699465
-0.05520314 1.4985774 0.26704603
-0.10612255 1.5170007 0.25709763
-0.15704194 1.5354241 0.2471492
-0.20796132 1.5538474 0.2372008
-0.25888166 1.5722711 0.22725219
-0.30192345 1.5970128 0.18868428
-0.26203543 1.5575826 0.21619278
-0.21066552 1.5412576 0.22772112
-0.15929466 1.5249323 0.23924965
-0.1079247 1.5086071 0.25077796
-0.056554765 1.4922822 0.2623063
-0.0051848292 1.4759572 0.27383462
0.046186045 1.4596318 0.28536314
0.10543358 1.449625 0.26827198
-0.23997265 1.5995963 0.18107262
-0.18950379 1.5790745 0.18944111
-0.13903397 1.5585525 0.19780982
-0.088565141 1.5380306 0.20617831
-0.038096279 1.517509 0.21454683
0.012372583 1.4969871 0.22291532
0.062842377 1.4764651 0.23128402
0.17964149 1.7725065 0.48634157
0.16791593 1.7254784 0.459277
0.15618895 1.6784492 0.43221244
0.14446214 1.6314209 0.40514851
0.13273533 1.5843925 0.37808454
0.12100977 1.5373642 0.35102001
0.10928278 1.4903352 0.32395542
0.10686275 1.4866571 0.32953057
0.11616956 1.5300074 0.36216968
0.12547557 1.5733588 0.39480922
0.13478236 1.6167091 0.42744833
0.14408913 1.6600595 0.46008745
0.15339592 1.7034097 0.49272653
0.16270195 1.7467611 0.52536607
0.2017704 1.7690537 0.48461705
0.19246362 1.7257034 0.45197794
0.18315759 1.6823519 0.41933843
0.17385082 1.6390016 0.38669932
0.16454405 1.5956514 0.3540602
0.15523726 1.552301 0.32142106
0.14593123 1.5089496 0.28878155
0.18483084 1.7433083 0.52364159
0.17794409 1.7036359 0.48542732
0.17105778 1.6639621 0.44721341
0.16417103 1.6242899 0.40899915
0.15728429 1.5846176 0.37078485
0.15039718 1.5449449 0.33257136
0.14351119 1.5052716 0.2943567
0.18241082 1.7396302 0.52921671
0.17310405 1.6962799 0.49657759
0.16379802 1.6529285 0.46393809
0.15449125 1.6095781 0.43129897
0.14518447 1.5662279 0.39865986
0.13587768 1.5228776 0.36602071
0.12657166 1.4795262 0.33338121
0.19154292 1.8012576 0.53763068
0.16516578 1.7458696 0.52584743
0.15832284 1.701628 0.49368972
0.15147974 1.6573853 0.46153137
0.14463679 1.6131437 0.42937365
0.13779385 1.5689019 0.3972159
0.13095091 1.5246601 0.36505815
0.12410781 1.4804176 0.33289984
0.11709021 1.4544531 0.27651697
0.12868617 1.5151892 0.28541231
0.14045587 1.5576483 0.31853262
0.15222573 1.6001083 0.35165349
0.16399637 1.6425672 0.384774
0.17576607 1.6850263 0.4178943
0.18753669 1.7274852 0.45101479
0.19930655 1.7699451 0.48413566
-0.28355291 1.6597896 0.21091872
-0.27666306 1.6994613 0.24913278
-0.26977429 1.7391337 0.28734794
-0.26288569 1.7788053 0.3255626
-0.25599706 1.8184768 0.36377722
-0.24910721 1.8581486 0.40199128
-0.24221843 1.8978209 0.44020647
-0.30049247 1.6340442 0.24994323
-0.29118288 1.6773934 0.28258291
-0.28187412 1.7207439 0.31522295
-0.27256548 1.7640935 0.34786242
-0.26325685 1.8074431 0.3805019
-0.25394726 1.8507924 0.41314155
-0.24463847 1.8941429 0.44578162
-0.24498963 1.9306979 0.39733097
-0.25429916 1.8873487 0.36469132
-0.2636089 1.8439986 0.33205107
-0.27291942 1.8006496 0.29941124
-0.28222895 1.7573004 0.26677158
-0.29153943 1.7139513 0.23413172
-0.30084914 1.6706012 0.2014915
-0.24740967 1.9270198 0.40290612
-0.25913888 1.8799931 0.37584084
-0.27086866 1.8329649 0.34877571
-0.28259921 1.7859379 0.32171106
-0.29432875 1.7389104 0.29464656
-0.30605894 1.691884 0.26758111
-0.31778869 1.6448559 0.24051601
-0.26434922 1.9012744 0.44193062
-0.27365875 1.8579252 0.40929097
-0.28296846 1.8145751 0.37665072
-0.29227901 1.7712262 0.34401089
-0.30158854 1.7278769 0.31137124
-0.31089902 1.6845279 0.27873138
-0.32020873 1.6411778 0.24609116
-0.23550451 1.9557697 0.45419595
-0.30295539 1.6349353 0.24946204
-0.29611057 1.6791763 0.28162014
-0.28926468 1.7234179 0.31377903
-0.28241992 1.7676589 0.3459371
-0.27557421 1.8118998 0.37809539
-0.26872939 1.8561409 0.41025349
-0.26188356 1.9003824 0.44241235
-0.30998036 1.6089734 0.19307771
-0.22774366 1.9244581 0.40070042
-0.23951709 1.8820002 0.36757937
-0.25129154 1.8395419 0.33445758
-0.26306495 1.7970841 0.30133656
-0.27483833 1.7546263 0.26821554
-0.28661177 1.7121685 0.23509449
-0.29838622 1.6697102 0.20197269
0.10999902 1.4532466 0.2912913
0.10032092 1.4385375 0.31358722
0.18221848 1.78965 0.54457361
0.17254038 1.7749408 0.56686956
0.094500899 1.4364244 0.32247287
0.1658345 1.7687019 0.57264876
0.10462517 1.4469261 0.28478885
0.094947077 1.4322169 0.30708477
0.1801379 1.7986677 0.54961967
0.17045981 1.7839584 0.57191563
0.089116126 1.4300994 0.31596267
0.16375393 1.7777195 0.57769477
0.087289721 1.4417298 0.32814357
0.15649396 1.7640436 0.57082182
0.094924733 1.4470077 0.28063199
0.085246637 1.4322985 0.30292791
0.08191587 1.4354093 0.32164112
0.15440583 1.7730725 0.575872
0.079426631 1.4301856 0.31181356
0.072215453 1.4354908 0.31748423
-0.30352217 1.5714297 0.24406862
-0.310036 1.5710902 0.2357164
-0.31185657 1.5778733 0.24470189
-0.23935735 1.9155332 0.49893457
-0.30021656 1.5899671 0.20342538
-0.30989465 1.575258 0.2257213
-0.31393719 1.5868911 0.24974793
-0.31836289 1.5775228 0.23634556
-0.2437343 1.9251462 0.49807581
-0.30854172 1.5964074 0.20406044
-0.31821981 1.5816983 0.22635636
-0.23302901 1.948149 0.46889123
-0.24270707 1.9334397 0.49118716
-0.32045102 1.5865515 0.24139571
-0.31063157 1.6054285 0.20910469
-0.32030967 1.5907192 0.23140061
0.15542704 1.7841519 0.57832396
-0.23403218 1.9250724 0.50223863
-0.22965527 1.9154594 0.50309736
0.14607896 1.7795049 0.57650113
0.16213292 1.790391 0.57254475
-0.23300499 1.9333661 0.49534994
0.17181101 1.8051001 0.5502488
-0.22332686 1.9480752 0.47305402
-0.24473125 1.9092127 0.49243212
-0.24910647 1.9188336 0.49157929
-0.24807924 1.9271271 0.48469064
-0.23840117 1.9418364 0.46239471
-0.078721583 1.6754673 0.41028488
0.030744299 1.4477986 0.30230165
-0.017938942 1.4654121 0.29278958
-0.066621423 1.4830244 0.28327706
-0.11530468 1.5006379 0.273765
-0.16398698 1.5182511 0.26425308
-0.21267042 1.5358636 0.25474039
-0.26135272 1.5534768 0.2452285
0.024719819 1.4503629 0.30213526
-0.029987156 1.4705408 0.29245836
-0.084693968 1.4907182 0.28278005
-0.13940153 1.5108969 0.27310213
-0.19410837 1.5310744 0.26342386
-0.24881551 1.5512514 0.25374636
0.018538862 1.454911 0.30699658
-0.035137907 1.4743303 0.29650834
-0.088814497 1.4937505 0.2860207
-0.14249218 1.5131701 0.27553225
-0.19616878 1.5325903 0.26504457
-0.24984556 1.5520096 0.2545563
0.035854027 1.4501687 0.29327723
-0.013538584 1.4680388 0.28362656
-0.062931374 1.4859082 0.27397528
-0.112324 1.5037782 0.26432461
-0.16171661 1.5216484 0.25467393
-0.21110922 1.5395185 0.24502322
-0.26050201 1.5573878 0.23537195
0.035836607 1.4496474 0.29452616
-0.013574213 1.4669974 0.28612486
-0.062984601 1.4843456 0.27772388
-0.11239466 1.5016944 0.26932219
-0.16180471 1.5190432 0.26092044
-0.21121553 1.5363932 0.25251913
-0.2606259 1.5537415 0.24411818
0.045532122 1.4648778 0.27098131
-0.0038604885 1.482748 0.26133063
-0.053253278 1.5006173 0.25167936
-0.1026459 1.5184875 0.24202868
-0.15203851 1.5363575 0.23237801
-0.20143113 1.5542276 0.2227273
-0.25082392 1.5720971 0.21307603
0.044322446 1.4630394 0.27376813
-0.006279856 1.4790709 0.26690423
-0.056882665 1.4951012 0.26004055
-0.10748497 1.5111328 0.25317666
-0.15808725 1.5271645 0.2463128
-0.20868951 1.5431961 0.23944885
-0.25929233 1.5592263 0.23258516
-0.17597902 1.8960378 0.51358384
-0.12230292 1.8766153 0.52406973
-0.068626672 1.8571936 0.53455621
-0.01494965 1.8377707 0.54504228
0.038726613 1.818349 0.55552876
0.092402697 1.7989266 0.56601465
-0.17973056 1.9042774 0.51284748
-0.12542948 1.8834813 0.52345651
-0.071127877 1.8626863 0.53406537
-0.016825333 1.8418911 0.5446744
0.037476256 1.8210961 0.55528325
0.09177734 1.8002998 0.56589234
0.10674505 1.8017666 0.5688132
0.058062315 1.8193824 0.55930293
0.0093803406 1.8369972 0.54979217
-0.039302573 1.8546122 0.5402813
-0.087984562 1.872227 0.53077054
-0.13666731 1.8898427 0.52126026
-0.18534929 1.9074575 0.51174951
0.10687323 1.8028036 0.56795257
0.058318481 1.8214557 0.55758107
0.0097648501 1.8401072 0.54720831
-0.038788974 1.8587589 0.53683698
-0.087342769 1.8774108 0.52646554
-0.13589767 1.896062 0.51609343
-0.18445116 1.9147143 0.50572133
0.11274065 1.8082626 0.56289524
0.063348539 1.826135 0.55324632
0.013956264 1.8440068 0.54359686
-0.035436019 1.8618785 0.53394735
-0.084828287 1.8797501 0.52429783
-0.13422042 1.8976226 0.51464897
-0.1836127 1.9154943 0.50499946
0.11395033 1.8101012 0.56010848
0.065767892 1.829812 0.54767275
0.01758562 1.8495228 0.5352357
-0.030596986 1.869233 0.52279943
-0.078779578 1.8889432 0.5103631
-0.12696201 1.9086542 0.49792743
-0.17514426 1.928365 0.48549035
0.12241875 1.8229718 0.54059935
0.073026635 1.8408443 0.53095043
0.023634359 1.8587159 0.52130091
-0.025757924 1.8765876 0.51165146
-0.075150192 1.8944594 0.50200194
-0.1245423 1.9123318 0.49235302
-0.17393458 1.9302034 0.48270354
0.097176112 1.487775 0.36281213
0.10706232 1.5338193 0.3974801
0.11694872 1.5798645 0.43214869
0.12683494 1.6259089 0.46681666
0.13672134 1.671954 0.50148529
0.14660756 1.7179984 0.53615326
0.15461349 1.7219918 0.53771901
0.14339307 1.6752808 0.50279027
0.13217208 1.6285707 0.46786061
0.12095216 1.581861 0.43293163
0.10973115 1.5351508 0.398002
0.098510727 1.4884398 0.36307329
0.10341783 1.4779589 0.35374489
0.11233385 1.5194939 0.38501674
0.12125076 1.5610285 0.41628876
0.13016771 1.6025631 0.44756079
0.13908464 1.6440978 0.47883281
0.14800064 1.6856327 0.51010466
0.15691757 1.7271672 0.54137671
0.16278517 1.7326269 0.53631997
0.15303069 1.690312 0.50576997
0.14327589 1.6479964 0.47522074
0.13352063 1.6056826 0.44467121
0.12376635 1.5633684 0.41412181
0.11401094 1.5210538 0.38357165
0.10425631 1.478739 0.35302305
0.1093486 1.4805878 0.34524754
0.11837533 1.5226384 0.37690768
0.12740299 1.5646888 0.40856805
0.13643065 1.6067392 0.44022837
0.14545831 1.6487895 0.47188869
0.15448505 1.6908402 0.50354886
0.16351272 1.7328905 0.53520924
0.11055827 1.4824263 0.34246078
0.12079468 1.5263155 0.37133411
0.13103235 1.5702049 0.40020689
0.14126968 1.6140938 0.42908043
0.15150702 1.6579826 0.45795396
0.16174343 1.7018718 0.48682734
0.17198114 1.7457612 0.5157001
0.11902669 1.495297 0.32295164
0.12805343 1.5373476 0.35461178
0.13708109 1.5793979 0.3862721
0.14610875 1.6214483 0.41793245
0.15513641 1.6634986 0.4495928
0.16416314 1.7055492 0.48125294
0.17319082 1.7475996 0.51291329
-0.31153297 1.6280866 0.27266851
-0.30261493 1.6696217 0.30394131
-0.29369676 1.7111576 0.3352147
-0.28477871 1.7526926 0.3664875
-0.27586073 1.7942276 0.3977603
-0.26694268 1.8357627 0.4290331
-0.25802448 1.8772985 0.4603065
-0.30963376 1.6326462 0.27725792
-0.29881686 1.6787405 0.3131209
-0.2879996 1.7248352 0.34898311
-0.27718258 1.7709291 0.38484469
-0.26636535 1.8170238 0.42070696
-0.25554848 1.8631179 0.45656994
-0.30405062 1.632937 0.28441712
-0.29416406 1.678983 0.31908628
-0.2842775 1.7250289 0.35375544
-0.27439094 1.7710748 0.38842461
-0.26450437 1.8171208 0.4230938
-0.25461781 1.8631668 0.45776296
-0.31128091 1.6327701 0.2630617
-0.30225214 1.6748209 0.29472283
-0.2932232 1.7168725 0.32638451
-0.28419447 1.7589233 0.35804561
-0.27516571 1.800974 0.38970673
-0.26613694 1.8430247 0.42136782
-0.25710803 1.8850764 0.45302954
-0.31140888 1.6317338 0.2639229
-0.30250829 1.6727476 0.29644465
-0.29360878 1.7137618 0.3289676
-0.28470805 1.7547765 0.36148995
-0.27580732 1.7957909 0.39401227
-0.26690763 1.836805 0.42653385
-0.2580072 1.8778191 0.45905697
-0.30160281 1.6474792 0.24076578
-0.29257405 1.68953 0.2724269
-0.28354511 1.7315816 0.30408859
-0.27451637 1.7736324 0.33574972
-0.26548761 1.8156831 0.36741081
-0.25645885 1.857734 0.3990719
-0.24742991 1.8997855 0.43073362
-0.30281249 1.6456407 0.2435526
-0.2949934 1.685853 0.2780005
-0.28717449 1.7260655 0.31244978
-0.27935544 1.7662778 0.34689769
-0.27153635 1.8064901 0.3813456
-0.26371723 1.8467023 0.41579345
-0.25589836 1.8869148 0.45024276
-0.25856203 1.5922372 0.27731189
-0.21360195 1.6130447 0.31055513
-0.16864181 1.6338522 0.34379837
-0.12368172 1.6546597 0.37704164
-0.27300072 1.5941393 0.27229926
-0.23414499 1.6104045 0.29989603
-0.19528908 1.6266704 0.3274934
-0.15643322 1.6429362 0.35509077
-0.11757749 1.6592014 0.38268754
-0.26689404 1.6046063 0.28185534
-0.21985093 1.6223216 0.31396273
-0.17280781 1.6400368 0.34607008
-0.12576473 1.657752 0.37817749
-0.21152931 1.8624636 0.47600266
-0.17832738 1.8157146 0.45957324
-0.14512545 1.7689655 0.44314378
-0.11192352 1.7222164 0.42671433
-0.12516683 1.7108805 0.4134872
-0.17161298 1.746294 0.41668934
-0.2180582 1.7817073 0.41989166
-0.16292125 1.6860827 0.38073927
-0.20007783 1.7144134 0.38330105
-0.23723435 1.7427442 0.38586286
-0.20996439 1.6683675 0.34863189
-0.24712092 1.6966982 0.35119367
-0.25700748 1.6506522 0.31652451
-0.23801684 1.8397923 0.44954824
-0.19819278 1.7987108 0.43973243
-0.21258479 1.8755219 0.48415944
-0.18581206 1.8355114 0.46938488
-0.1590395 1.7955003 0.45460972
-0.13226691 1.755489 0.43983459
-0.10549417 1.7154785 0.42506003
-0.19946849 1.867461 0.48453486
-0.16928178 1.8194625 0.46597236
-0.13909507 1.7714641 0.44740987
-0.10890833 1.7234657 0.42884737
0.10111884 1.7586973 0.54325789
0.056158736 1.7378898 0.51001465
0.011198625 1.7170823 0.47677138
-0.033761486 1.6962748 0.44352815
-0.0493595 1.711188 0.446596
-0.019997582 1.7469077 0.48290652
0.0093645155 1.7826284 0.51921767
-0.08541882 1.7520425 0.45789635
-0.061929449 1.7806184 0.48694474
-0.038439929 1.8091952 0.51599371
-0.11560553 1.800041 0.47645885
-0.092116177 1.8286169 0.50550723
-0.14579228 1.8480394 0.49502134
0.069922641 1.7885228 0.54939306
0.032761708 1.7602595 0.51461643
0.11555162 1.7568051 0.5482744
0.076696321 1.7405372 0.52067602
0.037842125 1.7242699 0.49307844
-0.0010120869 1.7080024 0.46548083
-0.039867386 1.6917347 0.43788245
0.10945086 1.7463284 0.53871447
0.062407739 1.728613 0.50660706
0.015364632 1.7108978 0.47449964
-0.031678483 1.6931826 0.44239226
0.05408746 1.4884772 0.34457183
0.020885199 1.5352248 0.36100009
-0.012317061 1.5819724 0.37742835
-0.045519337 1.6287198 0.39385661
-0.03227511 1.6400553 0.40708393
0.014170453 1.6046437 0.4038828
0.060616776 1.5692309 0.40068126
0.0054782331 1.6648526 0.43983108
0.042635128 1.6365235 0.43727049
0.079791844 1.6081936 0.43470928
0.052521348 1.6825678 0.47193846
0.089678243 1.6542387 0.46937788
0.099564463 1.7002832 0.50404584
0.080574982 1.5111487 0.37102625
0.040750608 1.5522285 0.38084087
0.055142969 1.4754189 0.33641508
0.028370053 1.5154285 0.35118905
0.0015971363 1.5554383 0.36596301
-0.025175765 1.595448 0.38073698
-0.051948681 1.6354576 0.39551091
0.04202804 1.4834862 0.33604437
0.011840627 1.5314815 0.35460451
-0.018346786 1.5794767 0.37316462
-0.048534185 1.627472 0.39172477
-0.10808337 1.6397482 0.37397495
-0.13744527 1.6040285 0.33766443
-0.16680703 1.5683093 0.3013545
-0.072023377 1.5988969 0.36267695
-0.095512748 1.5703208 0.33362857
-0.11900192 1.5417458 0.30458078
-0.041835964 1.5509017 0.34411684
-0.06532532 1.5223256 0.31506845
-0.011648566 1.5029063 0.32555673
-0.22736549 1.5624133 0.27117792
-0.19020438 1.5906775 0.30595511
-0.34341097 1.5919935 0.22482571
-0.32848817 1.5918636 0.23121768
-0.31567425 1.5819579 0.23024479
-0.31246674 1.5680692 0.22247434
-0.32074434 1.5583444 0.21246555
-0.33565795 1.558471 0.2060754
-0.34848106 1.56838 0.20704648
-0.35169029 1.5822608 0.214811
-0.17173108 1.8557702 -0.19977048
-0.16852182 1.8418894 -0.207535
-0.15569872 1.8319802 -0.20850608
-0.14078513 1.8318537 -0.20211592
-0.1325075 1.8415786 -0.19210711
-0.13571504 1.8554673 -0.18433666
-0.14852893 1.865373 -0.18336377
-0.16345176 1.8655028 -0.18975574
-0.34356225 1.5849514 0.22916132
-0.33162361 1.5848491 0.23427609
-0.32137471 1.5769236 0.23349625
-0.31880686 1.565812 0.22728023
-0.32543045 1.5580344 0.21927404
-0.33735985 1.5581334 0.2141611
-0.34761792 1.5660622 0.21493915
-0.3501876 1.577166 0.22114921
-0.33169472 1.6126509 0.16874614
-0.31169948 1.6430405 0.12268204
-0.29170391 1.6734307 0.076617189
-0.27170831 1.7038207 0.030552305
-0.2517131 1.7342104 -0.015511774
-0.2317175 1.7646005 -0.061576642
-0.21172193 1.7949905 -0.10764151
-0.19172668 1.8253801 -0.1537056
-0.32884198 1.6003127 0.16184464
-0.30920345 1.6322442 0.1166429
-0.28956437 1.6641769 0.071441062
-0.26992548 1.6961091 0.026238568
-0.2502867 1.7280412 -0.018962525
-0.2306478 1.7599733 -0.064165004
-0.21100873 1.791906 -0.10936689
-0.19137016 1.8238375 -0.15456858
-0.32848543 1.59877 0.16098163
-0.30849022 1.6291597 0.11491752
-0.28849465 1.6595497 0.06885267
-0.26849908 1.6899399 0.022787787
-0.2485038 1.7203295 -0.023276292
-0.22850823 1.7507195 -0.06934116
-0.20851266 1.7811097 -0.11540603
-0.18851742 1.8114992 -0.16147012
-0.31708744 1.5899621 0.1601184
-0.29851639 1.6214526 0.1141623
-0.27994591 1.6529437 0.068205304
-0.26137543 1.6844349 0.022248246
-0.24280435 1.7159253 -0.0237078
-0.22423387 1.7474165 -0.069664814
-0.20566344 1.7789078 -0.11562186
-0.18709233 1.8103981 -0.16157794
-0.31566235 1.588861 0.16001055
-0.29566711 1.6192505 0.11394645
-0.27567154 1.6496407 0.067881592
-0.25567597 1.6800308 0.021816708
-0.2356807 1.7104204 -0.024247371
-0.21568513 1.7408105 -0.070312239
-0.19568956 1.7712007 -0.11637711
-0.17569432 1.8015902 -0.16244119
-0.30240625 1.5887487 0.16569063
-0.28406757 1.6191522 0.11891661
-0.26572949 1.6495565 0.072141655
-0.24739045 1.6799605 0.02536685
-0.22905266 1.7103642 -0.021407329
-0.21071362 1.7407682 -0.068182118
-0.19237554 1.7711725 -0.11495709
-0.17403683 1.801576 -0.16173109
-0.30074877 1.5887345 0.1664007
-0.28075352 1.6191242 0.1203366
-0.26075795 1.6495142 0.074271746
-0.24076235 1.6799043 0.028206863
-0.22076714 1.7102939 -0.017857216
-0.20077154 1.740684 -0.063922085
-0.18077597 1.7710741 -0.10998695
-0.16078073 1.8014637 -0.15605104
-0.29339096 1.5973784 0.17529711
-0.27431536 1.626688 0.12812126
-0.25523961 1.6559972 0.080944069
-0.23616368 1.6853071 0.033767439
-0.21708822 1.7146158 -0.013408981
-0.19801226 1.7439259 -0.060585596
-0.17893654 1.7732351 -0.10776284
-0.15986094 1.8025446 -0.15493867
-0.29247114 1.5984592 0.17640948
-0.2724759 1.6288489 0.13034537
-0.25248033 1.6592391 0.084280528
-0.23248476 1.6896291 0.038215645
-0.21248949 1.7200186 -0.0078484342
-0.19249392 1.7504088 -0.053913303
-0.17249835 1.7807989 -0.099978171
-0.1525031 1.8111885 -0.14604226
-0.29532239 1.6108046 0.18331635
-0.27497062 1.6396515 0.13638926
-0.2546187 1.668498 0.089460827
-0.23426682 1.6973448 0.042532362
-0.21391499 1.7261918 -0.0043947026
-0.1935631 1.7550384 -0.051323153
-0.17321119 1.783885 -0.098251604
-0.15285948 1.812732 -0.14517868
-0.29567868 1.6123481 0.18417993
-0.27568343 1.6427376 0.13811582
-0.25568786 1.6731277 0.092050977
-0.23569226 1.7035178 0.045986094
-0.21569705 1.7339075 -7.7985227e-05
-0.19570145 1.7642975 -0.046142854
-0.17570588 1.7946876 -0.092207722
-0.15571064 1.8250772 -0.13827181
-0.30706841 1.621153 0.1850448
-0.2856499 1.6504421 0.1388725
-0.26423016 1.6797314 0.092699625
-0.24281132 1.7090211 0.046526529
-0.22139192 1.7383099 0.00035444647
-0.19997308 1.7675996 -0.045818634
-0.17855331 1.7968888 -0.091991477
-0.15713483 1.8261781 -0.13816378
-0.30849257 1.6222538 0.18515283
-0.28849733 1.6526434 0.13908872
-0.26850176 1.6830335 0.093023874
-0.24850619 1.7134236 0.04695899
-0.22851092 1.7438132 0.00089491159
-0.20851535 1.7742033 -0.045169957
-0.18851978 1.8045933 -0.091234826
-0.16852453 1.834983 -0.13729891
-0.32175702 1.6223691 0.17947114
-0.30010429 1.6527445 0.13411713
-0.27845031 1.68312 0.088762529
-0.2567963 1.7134956 0.043407954
-0.2351436 1.743871 -0.0019460246
-0.21348962 1.7742465 -0.047300614
-0.19183567 1.8046222 -0.092655204
-0.17018294 1.8349974 -0.13800919
-0.3234154 1.6223836 0.17876086
-0.30342016 1.6527731 0.13269675
-0.28342459 1.6831633 0.086631902
-0.26342899 1.7135534 0.040567018
-0.24343377 1.743943 -0.0054970607
-0.22343817 1.774333 -0.051561929
-0.2034426 1.8047231 -0.097626798
-0.18344736 1.8351128 -0.14369088
-0.33077472 1.6137326 0.16985908
-0.30985966 1.6452031 0.12490735
-0.28894413 1.6766748 0.079955436
-0.26802856 1.7081466 0.035003491
-0.24711353 1.7396171 -0.0099482462
-0.22619796 1.7710888 -0.054900177
-0.20528242 1.8025607 -0.099852107
-0.18436736 1.8340311 -0.14480382
0.27973306 1.6744602 -0.12341643
0.29464665 1.6743337 -0.11702626
0.30292428 1.6840584 -0.10701749
0.29971504 1.6979394 -0.099252976
0.28690284 1.707853 -0.098274149
0.27198002 1.7079828 -0.10466612
0.26370239 1.698258 -0.1146749
0.26690993 1.6843693 -0.12244535
0.099773861 1.4009508 0.29116502
0.11468744 1.4008243 0.29755521
0.12296505 1.4105492 0.30756396
0.11975582 1.4244299 0.31532848
0.10694364 1.4343436 0.31630731
0.092020795 1.4344734 0.30991533
0.083743185 1.4247487 0.29990655
0.086950719 1.4108598 0.2921361
0.087813824 1.4085422 0.30002877
0.085244246 1.4196459 0.30623886
0.091869548 1.4274313 0.31425095
0.10380816 1.4273291 0.31936571
0.11405706 1.4194036 0.31858584
0.11662492 1.4082919 0.31236985
0.11000134 1.4005144 0.30436367
0.098071985 1.4006133 0.29925072
0.25973749 1.64407 -0.077351563
0.23974225 1.6136805 -0.031287491
0.21974668 1.5832903 0.014777385
0.19975108 1.5529003 0.060842253
0.17975584 1.5225106 0.10690633
0.15976027 1.4921205 0.15297121
0.1397647 1.4617305 0.19903606
0.11976945 1.4313409 0.24510017
0.26139498 1.6440558 -0.076641463
0.24305628 1.6136525 -0.02986747
0.22471818 1.5832481 0.016907521
0.20637915 1.552844 0.063682295
0.18804137 1.5224403 0.11045647
0.16970234 1.4920363 0.15723127
0.15136424 1.461632 0.20400622
0.13302556 1.4312286 0.25078025
0.27465108 1.6439435 -0.070961408
0.25465584 1.613554 -0.024897322
0.23466025 1.5831639 0.021167554
0.21466467 1.5527737 0.067232423
0.19466943 1.5223842 0.1132965
0.17467384 1.4919941 0.15936139
0.15467827 1.461604 0.20542625
0.13468303 1.4312143 0.25149035
0.27557087 1.6450245 -0.069849044
0.2564953 1.615715 -0.022673219
0.23741952 1.5864058 0.024503998
0.21834357 1.5570958 0.071680628
0.19926815 1.527787 0.11885706
0.1801922 1.498477 0.16603369
0.16111645 1.4691678 0.21321091
0.14204082 1.4398583 0.26038677
0.28292868 1.6536684 -0.060952634
0.26293343 1.6232789 -0.014888555
0.24293786 1.5928887 0.031176321
0.22294228 1.5624986 0.07724119
0.20294704 1.532109 0.12330527
0.18295145 1.5017189 0.16937014
0.16295588 1.4713287 0.215435
0.14296064 1.4409392 0.26149911
0.28257218 1.655211 -0.060089648
0.26222026 1.6263633 -0.013163164
0.24186818 1.5975158 0.033764683
0.22151592 1.5686677 0.080691956
0.20116417 1.5398208 0.12761903
0.18081191 1.5109725 0.1745463
0.16045983 1.482125 0.22147414
0.14010791 1.4532773 0.26840064
0.27971944 1.6675493 -0.053188115
0.2597242 1.6371596 -0.0071240366
0.23972863 1.6067696 0.038940839
0.21973304 1.5763794 0.085005708
0.1997378 1.5459899 0.13106978
0.17974222 1.5155997 0.17713466
0.15974665 1.4852097 0.22319952
0.1397514 1.45482 0.26926363
0.27829546 1.6686509 -0.053079486
0.25687712 1.6393625 -0.0069066286
0.23545754 1.6100739 0.039266862
0.21403888 1.580785 0.085440524
0.1926198 1.5514978 0.13161379
0.17120114 1.5222089 0.17778748
0.14978155 1.4929204 0.22396094
0.12836324 1.4636321 0.27013382
0.26690727 1.6774628 -0.052209288
0.24691203 1.6470733 -0.0061452091
0.22691646 1.6166831 0.039919667
0.20692086 1.586293 0.085984536
0.18692562 1.5559034 0.13204861
0.16693005 1.5255133 0.17811349
0.14693448 1.4951233 0.22417834
0.12693924 1.4647336 0.27024245
0.26524886 1.6774774 -0.052919567
0.24359615 1.647102 -0.0075655878
0.22194219 1.6167264 0.03778901
0.20028818 1.5863509 0.083143584
0.17863546 1.5559754 0.12849757
0.15698148 1.5255998 0.17385218
0.1353275 1.4952244 0.21920675
0.11367479 1.464849 0.26456076
0.25198442 1.6775926 -0.05860126
0.23198919 1.6472031 -0.012537181
0.2119936 1.6168129 0.033527695
0.19199802 1.5864229 0.079592563
0.17200278 1.5560333 0.12565663
0.15200719 1.5256431 0.17172152
0.13201162 1.4952531 0.21778637
0.11201638 1.4648635 0.26385048
0.25106463 1.6765118 -0.059713602
0.23014975 1.6450421 -0.014761299
0.20923436 1.6135712 0.030191235
0.18831913 1.5821009 0.075144358
0.16740409 1.5506305 0.12009608
0.14648885 1.5191603 0.1650492
0.12557346 1.4876893 0.21000171
0.10465858 1.4562196 0.25495407
0.24370682 1.6678679 -0.068610042
0.22371158 1.6374784 -0.022545964
0.20371599 1.6070882 0.023518912
0.18372041 1.5766981 0.069583781
0.16372517 1.5463085 0.11564786
0.14372958 1.5159184 0.16171274
0.12373401 1.4855283 0.20777759
0.10373877 1.4551387 0.2538417
0.24406315 1.6663244 -0.069473624
0.22442442 1.6343921 -0.024272531
0.20478517 1.6024586 0.020928763
0.18514594 1.5705251 0.066130064
0.1655072 1.5385928 0.11133114
0.14586794 1.5066593 0.15653247
0.12622872 1.4747257 0.20173374
0.10658998 1.4427934 0.24693483
0.24691436 1.6539792 -0.076380484
0.22691911 1.6235895 -0.030316412
0.20692353 1.5931995 0.015748464
0.18692794 1.5628093 0.061813332
0.1669327 1.5324198 0.10787741
0.14693712 1.5020297 0.15394229
0.12694155 1.4716396 0.20000714
0.1069463 1.44125 0.24607125
0.24833946 1.652878 -0.076488338
0.2297684 1.6213877 -0.030532241
0.21119791 1.5898964 0.015424781
0.19262743 1.5584052 0.061381824
0.17405635 1.5269148 0.10733787
0.1554859 1.4954236 0.15329492
0.1369154 1.4639324 0.19925192
0.11834434 1.4324419 0.24520802
-0.23172718 1.9542716 0.49105448
-0.21236762 1.983695 0.44645482
0.19498606 1.8362916 0.52603066
0.17562649 1.8068681 0.57063031
0.17202383 1.790089 0.55799699
0.19138341 1.8195125 0.51339728
-0.21597028 1.966916 0.43382144
-0.23532984 1.9374925 0.47842109
-0.16144875 1.9652693 0.45640147
-0.11052966 1.9468443 0.46634868
-0.05960986 1.9284183 0.4762955
-0.0086907893 1.9099933 0.48624274
0.042228281 1.8915683 0.49618998
0.093147166 1.8731426 0.50613666
0.14406715 1.8547173 0.51608402
-0.1783883 1.9395238 0.49542597
-0.12504917 1.9247769 0.49979806
-0.071709663 1.9100285 0.50417048
-0.018370584 1.8952816 0.5085426
0.034968525 1.8805346 0.51291466
0.08830709 1.8657864 0.51728696
0.14164712 1.8510392 0.5216592
-0.18080831 1.9358459 0.50100112
-0.12988925 1.9174209 0.51094836
-0.078969419 1.8989948 0.52089518
-0.028050363 1.8805698 0.53084242
0.022868693 1.8621448 0.54078966
0.073787592 1.8437191 0.55073631
0.12470758 1.8252938 0.56068373
0.14046451 1.8379382 0.50345069
0.08954452 1.8563635 0.49350324
0.038625628 1.8747892 0.4835566
-0.012293428 1.8932142 0.47360936
-0.063212335 1.9116399 0.46366271
-0.11413139 1.9300649 0.45371547
-0.16505122 1.948491 0.44376868
0.12352496 1.8121928 0.54247516
0.075024992 1.8342962 0.52695262
0.02652581 1.8563994 0.51143157
-0.021973222 1.8785025 0.49590918
-0.070472091 1.9006063 0.48038736
-0.11897147 1.9227087 0.46486577
-0.16747126 1.9448129 0.44934383
0.12110494 1.8085148 0.54805034
0.070184946 1.8269401 0.53810292
0.019266054 1.8453658 0.52815628
-0.031653002 1.8637908 0.51820904
-0.082571894 1.8822165 0.5082624
-0.13349095 1.9006414 0.49831513
-0.18441081 1.9190675 0.48836833
-0.22384873 1.9605937 0.46243796
0.12425721 1.8231963 0.55910438
0.072887011 1.8395247 0.54757822
0.021517575 1.8558521 0.53605169
-0.02985169 1.8721802 0.5245257
-0.081220955 1.8885084 0.51299977
-0.1325902 1.9048367 0.50147378
-0.18396059 1.9211643 0.48994705
0.18350494 1.8131902 0.54201382
-0.16189894 1.9631724 0.45482272
-0.11143023 1.94265 0.46319064
-0.060960799 1.9221263 0.47155812
-0.010492116 1.9016037 0.47992605
0.039976582 1.8810812 0.48829398
0.090445265 1.8605586 0.49666187
0.14091471 1.840035 0.50502938
-0.068982273 2.236088 0.095735334
-0.083895862 2.2362146 0.089345172
-0.092175156 2.2264819 0.079330474
-0.088965923 2.2126009 0.071565956
-0.076152056 2.2026954 0.070593067
-0.061229229 2.2025654 0.076985039
-0.052951619 2.2122903 0.086993806
-0.056160837 2.226171 0.094758332
-0.24966061 1.9614857 0.5119735
-0.22958532 1.991997 0.46572497
-0.20951003 2.0225081 0.41947648
-0.18943471 2.0530195 0.37322795
-0.16935909 2.0835311 0.32697868
-0.1492838 2.1140425 0.28073016
-0.12920851 2.1445537 0.23448163
-0.10913321 2.175065 0.18823314
-0.089057565 2.2055769 0.14198384
-0.25804961 1.961557 0.5083791
-0.23704213 1.9920602 0.4625299
-0.21603465 2.0225635 0.41668072
-0.19502711 2.0530667 0.37083155
-0.17401934 2.0835702 0.3249816
-0.15301272 2.114074 0.27913222
-0.1320051 2.144578 0.23328364
-0.11099762 2.175081 0.18743446
-0.089989752 2.2055848 0.14158452
-0.26457423 1.9616122 0.50558335
-0.24449891 1.9921235 0.45933482
-0.22442365 2.0226347 0.41308632
-0.20434833 2.0531459 0.3668378
-0.18427271 2.0836577 0.32058853
-0.16419739 2.1141691 0.27434
-0.14412209 2.1446803 0.22809148
-0.1240468 2.1751914 0.18184298
-0.10397118 2.2057033 0.13559368
-0.26923126 1.9561372 0.49994981
-0.24863857 1.9872571 0.45432746
-0.22804606 2.0183764 0.40870458
-0.20745331 2.0494962 0.36308223
-0.18686041 2.080616 0.31745857
-0.16626769 2.1117361 0.27183622
-0.1456742 2.1428549 0.22621349
-0.12508148 2.1739748 0.1805912
-0.10448861 2.2050946 0.13496748
-0.27285349 1.9518795 0.49556866
-0.25277823 1.9823908 0.44932011
-0.23270291 2.012902 0.40307161
-0.21262762 2.0434134 0.35682312
-0.192552 2.073925 0.31057385
-0.17247668 2.1044364 0.26432529
-0.15240139 2.1349475 0.2180768
-0.1323261 2.1654589 0.17182828
-0.11225045 2.1959705 0.12557898
-0.27104849 1.9440715 0.49120101
-0.25117362 1.9754504 0.44543788
-0.23129874 2.0068293 0.39967474
-0.21142387 2.038208 0.35391161
-0.19154873 2.0695875 0.3081477
-0.17167401 2.1009655 0.26238397
-0.15180007 2.1323447 0.21662065
-0.13192523 2.1637237 0.17085752
-0.11205006 2.1951029 0.12509361
-0.26964426 1.9379987 0.48780414
-0.249569 1.9685099 0.44155559
-0.22949368 1.9990212 0.39530709
-0.20941839 2.0295324 0.3490586
-0.18934277 2.0600443 0.30280933
-0.16926745 2.0905554 0.25656077
-0.14919215 2.1210668 0.21031228
-0.12911686 2.1515779 0.16406377
-0.10904121 2.1820898 0.11781447
-0.26243633 1.9324267 0.48725697
-0.24316204 1.963557 0.44106916
-0.2238878 1.9946873 0.39488137
-0.20461345 2.0258176 0.34869355
-0.18533885 2.0569484 0.30250499
-0.16606361 2.0880785 0.25631735
-0.14678913 2.1192095 0.21013016
-0.12751487 2.1503398 0.16394234
-0.10824025 2.1814706 0.11775376
-0.25683039 1.928093 0.48683125
-0.2367551 1.9586042 0.44058272
-0.21667981 1.9891155 0.39433423
-0.19660449 2.0196266 0.3480857
-0.17652887 2.0501385 0.30183643
-0.15645358 2.0806499 0.25558788
-0.13637829 2.111161 0.20933938
-0.116303 2.1416721 0.16309088
-0.096227348 2.172184 0.11684158
-0.24843585 1.9280196 0.49042675
-0.22929367 1.9585392 0.44377869
-0.2101506 1.9890586 0.39713088
-0.19100839 2.0195782 0.35048282
-0.17186499 2.0500979 0.30383423
-0.15272281 2.0806177 0.25718617
-0.13357985 2.1111362 0.21053773
-0.1144377 2.1416559 0.16388974
-0.095294237 2.1721756 0.11724109
-0.24190757 1.9279631 0.49322322
-0.22183228 1.9584744 0.44697469
-0.20175698 1.9889857 0.4007262
-0.18168169 2.0194969 0.35447767
-0.16160604 2.0500085 0.3082284
-0.14153075 2.0805199 0.26197985
-0.12145546 2.1110311 0.21573135
-0.10138017 2.1415424 0.16948286
-0.08130452 2.1720543 0.12323355
-0.23725152 1.9334334 0.49885321
-0.21769348 1.9633367 0.45197907
-0.19813544 1.9932401 0.40510496
-0.17857736 2.0231433 0.35823086
-0.15901902 2.0530472 0.31135598
-0.13946077 2.0829513 0.26448244
-0.11990368 2.112855 0.21760815
-0.10034564 2.1427584 0.17073405
-0.080787241 2.1726623 0.12385914
-0.23362994 1.9376879 0.503232
-0.21355468 1.9681991 0.45698345
-0.19347936 1.9987104 0.41073495
-0.17340407 2.0292218 0.36448643
-0.15332845 2.0597334 0.31823716
-0.13325313 2.0902448 0.27198863
-0.11317784 2.1207559 0.2257401
-0.093102545 2.1512673 0.17949161
-0.07302691 2.1817789 0.13324231
-0.23543501 1.945496 0.50759965
-0.2151593 1.9751396 0.46086571
-0.19488356 2.0047832 0.41413185
-0.17460781 2.0344269 0.36739793
-0.15433171 2.0640709 0.3206633
-0.13405579 2.0937154 0.27392995
-0.11377919 2.1233587 0.22719625
-0.093503416 2.1530025 0.18046239
-0.073227331 2.1826465 0.1337277
-0.23683918 1.9515687 0.51099652
-0.21676388 1.98208 0.46474797
-0.19668859 2.0125914 0.41849947
-0.17661327 2.0431025 0.37225094
-0.15653765 2.0736144 0.32600167
-0.13646236 2.1041255 0.27975315
-0.11638707 2.1346369 0.23350465
-0.096311778 2.165148 0.18725613
-0.076236129 2.1956599 0.14100683
-0.24405169 1.9571474 0.51154613
-0.22317457 1.9870385 0.46523649
-0.20229846 2.0169299 0.41892669
-0.18142122 2.0468218 0.37261763
-0.16054478 2.0767138 0.32630706
-0.13966772 2.1066048 0.27999741
-0.11879158 2.1364963 0.23368758
-0.097914368 2.166388 0.18737856
-0.077037886 2.19628 0.14106795
0.38248527 2.0547938 0.17210121
0.37927604 2.0686746 0.17986575
0.3664529 2.0785837 0.18083683
0.35153931 2.0787101 0.17444664
0.34326172 2.0689855 0.16443788
0.34646922 2.0550966 0.15666744
0.35928312 2.0451908 0.15569454
0.37420595 2.0450611 0.16208652
0.20180692 1.7801914 0.58833945
0.22188221 1.8107027 0.54209089
0.2419575 1.8412139 0.49584237
0.26203281 1.8717252 0.44959384
0.28210843 1.9022369 0.40334457
0.30218375 1.9327482 0.35709605
0.32225904 1.9632595 0.31084752
0.34233433 1.9937707 0.26459903
0.36240995 2.0242825 0.21834973
0.20000185 1.7879994 0.59270704
0.22027759 1.817643 0.54597312
0.24055333 1.8472867 0.49923924
0.26082906 1.8769304 0.45250532
0.28110605 1.9065742 0.40577087
0.30138198 1.9362186 0.35903755
0.32165772 1.9658623 0.31230366
0.34193343 1.9955059 0.26556978
0.3622095 2.0251501 0.21883509
0.1985977 1.7940723 0.59610391
0.21867299 1.8245835 0.54985541
0.23874828 1.8550948 0.50360692
0.25882357 1.8856061 0.45735836
0.27889922 1.9161178 0.41110909
0.29897451 1.946629 0.36486056
0.31904981 1.9771403 0.31861204
0.3391251 2.0076516 0.27236354
0.35920075 2.0381634 0.22611424
0.19138512 1.7996459 0.59665018
0.21226141 1.8295381 0.55034095
0.23313864 1.85943 0.5040319
0.25401494 1.8893222 0.45772266
0.27489251 1.9192145 0.41141286
0.2957688 1.9491067 0.36510363
0.31664589 1.9789978 0.31879398
0.33752218 2.0088899 0.27248478
0.35839975 2.0387824 0.22617495
0.18577456 1.8039813 0.59707499
0.20584986 1.8344926 0.55082649
0.22592515 1.8650038 0.50457799
0.24600045 1.8955151 0.45832944
0.26607609 1.9260268 0.41208017
0.28615138 1.9565382 0.36583164
0.30622667 1.9870493 0.31958312
0.32630199 2.0175607 0.27333462
0.34637761 2.0480723 0.22708532
0.17738557 1.8040526 0.59348059
0.19839306 1.8345559 0.54763138
0.21940054 1.865059 0.50178224
0.24040805 1.8955623 0.455933
0.26141587 1.9260659 0.41008309
0.28242245 1.9565696 0.3642337
0.30343008 1.9870735 0.31838509
0.32443759 2.0175767 0.27253595
0.34544539 2.0480804 0.22668597
0.17086098 1.8041078 0.59068483
0.19093627 1.834619 0.54443634
0.21101156 1.8651303 0.49818781
0.23108687 1.8956416 0.45193928
0.2511625 1.9261533 0.40569001
0.27123779 1.9566646 0.35944146
0.29131308 1.9871758 0.31319296
0.31138837 2.0176871 0.26694447
0.33146402 2.0481989 0.22069517
0.16620491 1.7986375 0.58505487
0.18679745 1.8297567 0.53943193
0.20739001 1.8608758 0.49380901
0.22798255 1.8919951 0.44818607
0.24857545 1.9231148 0.40256241
0.26916784 1.9542332 0.3569389
0.2897613 1.985352 0.31131616
0.31035388 2.0164711 0.26569325
0.33094674 2.047591 0.22006956
0.16258337 1.794383 0.58067608
0.18265866 1.8248943 0.53442752
0.20273395 1.8554056 0.48817903
0.22280926 1.8859168 0.4419305
0.24288487 1.9164286 0.39568123
0.2629602 1.9469398 0.34943268
0.28303549 1.9774511 0.30318418
0.30311078 2.0079625 0.25693569
0.3231864 2.0384741 0.21068639
0.1643874 1.7865703 0.57630491
0.18426242 1.8179499 0.53054231
0.20413727 1.8493288 0.48477918
0.2240123 1.8807085 0.43901664
0.24388748 1.9120878 0.39325276
0.26376161 1.9434679 0.34748998
0.28363645 1.9748467 0.30172688
0.30351147 2.0062263 0.25596434
0.32338667 2.0376058 0.2102004
0.1657909 1.7804943 0.57290566
0.18586619 1.8110056 0.5266571
0.20594148 1.8415169 0.48040858
0.22601679 1.8720281 0.43416005
0.24609241 1.9025398 0.38791078
0.26616773 1.9330511 0.34166226
0.28624302 1.9635624 0.29541373
0.30631831 1.9940736 0.24916524
0.32639396 2.0245855 0.20291594
0.17299883 1.7749224 0.57235849
0.19227313 1.8060527 0.52617067
0.2115474 1.837183 0.47998285
0.23082171 1.8683133 0.43379503
0.25009632 1.8994441 0.38760647
0.26937157 1.9305742 0.34141883
0.28864601 1.9617052 0.29523161
0.30792034 1.9928355 0.24904382
0.32719496 2.0239663 0.20285523
0.17860478 1.7705886 0.57193273
0.19868007 1.8010998 0.52568424
0.21875536 1.831611 0.47943571
0.23883067 1.8621223 0.43318716
0.2589063 1.8926342 0.38693789
0.2789816 1.9231454 0.34068936
0.29905689 1.9536567 0.29444087
0.31913221 1.9841679 0.24819234
0.33920783 2.0146797 0.20194304
0.18699838 1.7705157 0.57552809
0.20614147 1.8010349 0.52888018
0.22528365 1.8315545 0.48223218
0.24442676 1.8620739 0.43558431
0.26356927 1.892594 0.38893554
0.2827124 1.9231133 0.34228766
0.3018544 1.9536321 0.29563904
0.32099751 1.9841515 0.24899119
0.34014001 2.0146716 0.20234239
0.19352762 1.7704587 0.57832474
0.21360292 1.8009701 0.53207618
0.23367821 1.8314812 0.48582765
0.25375351 1.8619926 0.43957916
0.27382913 1.8925042 0.39332989
0.29390445 1.9230156 0.34708133
0.31397974 1.9535269 0.30083284
0.33405504 1.9840381 0.25458431
0.35413069 2.0145497 0.20833501
0.1981847 1.7759337 0.58395827
0.21774256 1.8058363 0.53708351
0.23730057 1.8357396 0.49020943
0.25685847 1.8656422 0.4433347
